# 3D point list with one line of data per point:
#   POINT3D_ID, X, Y, Z, R, G, B, ERROR, TRACK[] as (IMAGE_ID, POINT2D_IDX)
# Number of points: 364, mean track length: 4.6566157000085422
9863 -0.44223499852220099 -3.3085378121415689 5.5871949272218613 101 90 82 0.6849070500553881 14 78 27 97 68 131 47 44
1865 1.8284038687521067 3.158744289920064 -0.22792693328897828 161 156 153 0.54599984797605305 57 4567 37 3671 34 4079 19 4172 73 3421
32684 -2.592940733939987 -1.7330200400754854 3.771873895374632 146 148 160 1.7515903726613204 54 2320 75 2434 58 1435
11931 5.3024358014533668 2.8702437297205408 8.6114470955443956 162 156 142 0.56506282817575604 14 2489 27 2629 47 1859 30 2654 93 2651 30 1936
35041 7.0028264389559176 -1.6308307303474279 8.0380371328587294 0 0 0 0.77948317815672863 24 1553 31 118 18 162 37 1849 57 2411
14288 3.8421093469691803 2.7845237246900525 1.5453364634731184 89 85 86 0.20260835897598564 1 3384 85 3272 46 1066
9606 0.010172351681020448 3.5128527306737607 -1.5583996589536009 208 195 179 0.24206633387910687 33 1935 59 1606 3 1850 78 2894 20 876
33932 -2.5929399980875081 -1.7330222814746861 3.7718707392627815 149 121 100 0.65540653943697813 70 262 81 211 66 534 72 347
13179 6.9620411986738437 1.9699920765939141 2.4995994953295244 12 14 13 0.55843461701121599 21 3914 26 3677 30 3822 93 3723 25 3204
1580 2.4518928986176354 2.6466544396850042 1.9982247465533642 58 58 60 0.70916782280101243 57 4105 37 3212 34 3601 31 2648 18 4064
32399 -2.5929443124280196 -1.7330210900398022 3.7718717612715507 164 133 118 1.2629441524758231 72 745 80 601 54 767 75 1503 70 1855
11646 0.75456577070568365 2.6205639413187347 3.9152901276587548 154 152 153 0.65181034400096516 14 2026 48 1040 26 2035
34756 -2.5929329453489802 -1.7330260143645015 3.7718750507094936 174 170 158 1.5187538628966217 66 1902 13 1566 58 2766
14003 3.4107774351728004 2.7798994428552759 1.6020850505960926 193 192 190 0.058762119906798076 1 2531 62 2717 85 2423
35297 3.361212492278888 2.9397009462170907 -4.6847220985674607 44 22 3 0.16215344574808216 60 1296 79 532
14544 7.7503514675317655 2.4553454385923925 1.5791830834504021 56 48 37 1.3378065394178205 25 1778 2 4004 65 3987 42 3660 61 4051
9862 2.2391468607605636 -3.4283072384265281 5.9499854257994729 116 78 85 0.67872472558203489 14 80 68 130 47 38 26 91
10234 0.9004365571745313 2.5617382458131237 3.1871120897487151 176 174 179 0.87411807093378624 14 2154 27 2223 68 1266 48 1257 47 683 26 2153
34754 -2.592933876466148 -1.733021341945902 3.7718691182297817 231 222 198 0.19477002118915376 58 2828 66 1837 13 1563
14001 3.667519129147589 2.787764438035337 1.3100500874190524 178 177 175 0.54154797097857832 1 2535 62 2729 85 2418 46 444 2 3529
9319 -4.4574391382731573 1.0607505170334672 5.5673372450259757 98 91 75 0.57674418300212238 16 2017 41 3275 51 3467 84 1472 59 1067 73 1782 19 2339 33 1455
10233 0.1641967926575533 2.6431974637836535 3.3352337322466794 149 145 146 1.019938249698997 14 1214 27 1165 68 1265
30986 -2.5929440129455612 -1.7330203184098321 3.7718735551505409 124 117 111 1.1422780407054003 80 2737 81 3002 70 3483 54 3301 72 3308 75 2415
10232 2.6803780533004882 2.4065315964216474 2.9114924741573596 148 144 146 0.39113977468174727 14 1023 27 1144 68 1255 48 2408 27 2214 47 831 26 1057 21 1316 30 1414
34185 -2.5929382324649199 -1.733019208148618 3.771873885190975 198 202 211 1.2864288916794504 80 3635 81 3542 66 1800 58 2737 13 1454
13432 8.4415766791630933 -4.9333608711931527 3.2508322571350439 104 97 87 1.4889641620772707 93 5 62 2 30 3 85 5 88 5
8750 0.75912390957204434 3.4257371573520712 -0.9780275402775841 177 160 132 0.9431778320009373 16 2478 84 2582 59 1665
29503 -2.5929388721076925 -1.7330242301258805 3.771868980469292 245 245 235 0.94120519920269119 74 871 89 24 6 321
1861 3.0111690022430748 3.171378866047649 -0.36854639733781802 168 161 153 0.56704512275338126 57 4596 37 3662 31 2129 18 3136
22614 -2.5929219301807036 -1.7330130159111969 3.7718734710232766 161 158 165 0.46860156551926352 43 1914 64 2551 9 2505 4 4168 7 3065 83 4469 8 3524
32680 -2.592940666783762 -1.7330198884781429 3.771873837029136 194 197 206 0.73177754057726008 70 1160 54 2313 72 2561
11927 -0.12373744370503589 -0.39485956734288324 6.5336977648131249 133 102 97 0.50647815836068044 34 3401 37 3939 47 1785 57 3903
35037 6.9445710445179083 -2.0942648294865824 7.9865968604082207 0 0 0 1.2500692958187973 24 257 31 87 17 386 18 132 57 71
14284 2.3500552382003952 2.4461835222543211 2.6418478707821 26 36 66 0.8512819554494534 21 3976 26 3692 27 3900 46 1051 14 3746
9602 -0.1214051057334694 3.5339752905172399 -1.8021292422324227 116 115 120 0.37985748452811813 33 2161 59 1840 3 1843 78 2880 20 864 15 2085
30355 -2.5929434308590205 -1.7330208678402486 3.7718719773617555 152 122 122 1.2572029125757169 80 710 81 595 72 885 70 1950 54 2085 75 798
33928 -2.5929376244785791 -1.7330220904985205 3.771870386487524 137 79 83 0.7870710002533704 70 2643 80 2398 66 524 72 2921 81 2217
10231 2.5751017503291451 2.3841254193261219 2.8884395288930227 174 172 175 0.29951254805413047 14 1022 27 2209 68 1253 48 2403 47 1609 26 2007 21 1339
32936 -2.592945979542419 -1.7330228096910236 3.7718706598682958 125 61 60 2.7257655819545734 70 3775 81 3275 54 3359 75 2803
12183 4.71867333859886 2.5708304956012409 2.2546055736821495 108 108 113 0.41006843889792211 14 1264 26 1109 27 1505 21 1291 30 1288 93 1366
35293 3.4437185380964053 2.8954836510784556 -5.1232218500243007 242 195 151 0.60012531160479909 60 1067 79 445
30404 -2.5929442500303619 -1.7330207033921581 3.7718722759920285 34 34 46 0.89265894870414753 80 872 81 720 72 1055 70 2061 54 2159
9651 0.074148015350073634 3.4080863017193623 -1.2434700493965087 195 180 157 0.59575445974009977 33 2384 59 2093 3 2105
9858 1.1096769383226073 -3.3705403273883747 5.7164297380983182 113 86 82 0.6801375700525264 14 2381 27 1672 68 121 48 126 47 1743 26 2268
30611 -2.5929445694886901 -1.7330211496360359 3.7718717002381164 150 125 103 0.68654228746377599 80 552 81 452 72 2156 70 1825 75 532
35036 9.7642704630592014 0.15145700554635286 -3.110381911971126 111 107 98 0.268724116883231 39 865 77 1276 23 3093 67 2953 23 2710
14283 6.7905812389929512 3.3563702812965319 3.8635234265940315 176 162 136 0.5413682220126691 1 3452 62 3725 85 3330 46 1046 88 2865
9601 -0.12026375524754519 3.5333593338551714 -1.8172995769760125 68 66 67 0.40906305117155534 33 1931 59 1605 3 1842 78 2696 20 749 15 1917
30354 -2.5929434266019409 -1.7330208653174795 3.7718719765416449 152 122 122 1.1476165271067498 80 709 72 884 81 594 70 1949 75 797
1575 2.0054261409770966 2.6396888733327399 0.53802108090097911 174 137 110 0.60092861171619383 57 4104 37 3207 34 3602 31 2642
32394 -2.592944553422929 -1.733021130572439 3.7718717470119816 90 52 45 0.48928426102170813 80 583 81 1596 54 740
11641 3.6108502337590882 2.0757971576626102 3.740161517421134 77 74 67 0.59607682578957055 27 756 48 946 47 492
34751 -2.5929333611903544 -1.733019946322869 3.7718738136879759 111 112 105 0.31571329756081529 58 2712 66 1768 13 1516
13998 3.525218524577717 2.795997744911868 1.7782905594035316 186 185 183 0.1446974544043188 1 2020 62 2162 85 2412
9316 -1.8355946632904143 3.0139827642002213 -1.1498506297585647 23 20 13 0.77698352541256277 84 1622 59 751 3 936 33 258 78 898 15 1737
31285 -2.5929438984415505 -1.7330211969193461 3.7718715535947518 193 141 101 1.0738132461108219 80 3412 81 3331 72 4044 70 3826 54 3623 75 3059 28 1733 75 3178
10532 3.8720066845025118 2.0913937057163388 3.6591366109890511 99 92 80 0.31932450520518063 14 1877 27 2012 68 2098 48 2206 26 1824 21 939 30 2089 93 2176 25 1013
33642 -2.5929438887706628 -1.7330217610013785 3.7718709900756915 54 48 34 1.5698772208154457 72 4027 75 3156 28 1719
10230 3.3694177789360706 2.4150648492929476 2.9454546814482372 155 150 154 0.2337535398801755 27 1139 68 1250 26 978 30 1277 93 1439
2116 1.9077607473505636 3.0346281954762255 0.54246007244457295 96 84 68 0.89902766036053883 57 5224 37 4201 34 4648 19 4825 73 3883 41 4310 51 4565
32935 -2.5929460603238206 -1.7330228433451191 3.7718706482432185 128 78 71 1.8700761047184886 70 3551 54 3356 75 2799 28 1444
12182 4.1309782489679527 2.500332933310804 2.4281373089025862 181 180 178 0.16919731513276626 14 1175 21 1290 30 1320
35292 3.7074367036674238 2.5959110032358814 -4.5205273488784341 87 74 65 0.41045429155685637 23 2307 60 2025 79 345
14539 7.9084507724163409 -0.19519016228004168 5.6950698568509797 81 71 59 0.46740332824816389 31 3426 2 3977 42 3646 88 1980 85 1574
9857 0.82996196765817409 -3.4208060979743795 5.8665512660699504 109 83 76 0.66797882555048493 27 1670 68 120 48 121
1859 1.7938495132818042 3.1539639761289213 -0.19025740566434587 167 159 156 0.14234466962036049 57 4557 37 3654 34 4069
32678 -2.5929432840029483 -1.7330202386776883 3.7718735365027336 35 27 16 0.66516471317655612 80 1188 81 985 54 2308 72 2584
11925 -0.41212635738385284 -2.7164469456247096 5.5624677461068623 66 58 50 0.43911105068876016 14 2394 68 3143 47 1762
35035 10.031051013518793 2.4090559599123704 -2.3625830157055305 149 136 120 0.25906550534643358 39 1685 23 4052
14282 6.7905812389929512 3.3563702812965319 3.8635234265940315 176 162 136 0.54136822201266899 62 3724 46 1045 88 2864 1 3451 85 3329
9600 -0.047133336596470135 3.4895724655449616 -1.5513253781638188 220 202 174 0.47276276976110321 33 2153 59 1837 3 1839 78 2889 20 875 15 2279
1574 1.7024415382481743 2.6232702549882689 0.46198766375931399 186 157 138 0.76426144810227303 57 2744 37 3203 34 3594 19 3784 73 3063 51 4422
32393 -2.5929443525990674 -1.7330211244863349 3.7718717389281298 157 125 110 1.1536288292299124 81 479 54 738 70 620 72 720 75 577
11640 4.0903160759046271 2.0656312946019888 3.9135270445976729 89 82 72 0.3915715227607558 14 617 27 721 48 924 47 470 26 674 21 851 30 943 25 963
34750 -2.5929338896265777 -1.733019120082028 3.7718714110978691 171 171 161 0.1766470783970471 58 2786 66 1858 13 1513
13997 3.7530367128979853 2.7565043956100626 1.4460326168263338 155 150 147 0.17573100270556397 1 2521 62 2715 85 2407 46 422
9315 -2.83810343169979 2.8524683453824715 0.51204713919290412 169 161 150 0.84107102982012949 84 2285 59 738 33 1067
10031 1.7663566925176477 2.1320754338069787 4.2343901566901394 121 119 120 0.42810486223804084 27 1970 68 731 48 711 21 2143
10229 0.11799757146382188 2.644813567372474 3.3841047882025248 88 84 86 1.1567064863132188 14 2179 27 1146 68 1249
10030 3.6109404624203734 2.0319938780880258 4.01266909821772 16 13 8 0.3619844979389033 27 696 68 724 48 831
30576 -2.5929429735517338 -1.7330211837631895 3.7718715117769621 174 153 127 0.52419328189520398 80 458 81 1523 72 2082 70 485 54 1842 75 1448
9823 2.4162973972460731 -2.8707529257032594 6.6164557097138328 73 29 42 0.89445960605050756 14 3795 27 3956 49 4683 68 4036 48 3884 47 3198 26 3740 21 4025 46 1230 5 1135
10228 3.3188000750746207 2.4272649936543438 2.983862674299266 191 189 190 0.29281692779373147 27 1131 68 1247 14 956 47 1635 68 2298 21 1218
35290 3.5826141218831098 2.1965165936879405 -5.1116778377296432 104 110 106 0.020577527451598986 60 147 79 81
14537 7.2294546657262844 -2.3447435915584083 7.6411285581648745 160 163 144 0.39237088781468527 18 4909 2 3964
9855 0.21910090232821422 -3.3901966368346059 5.7498229150818698 117 88 83 0.85000001035166484 27 91 68 118 47 1001
1572 1.3552669680677116 2.61556194363685 0.54233689424700282 179 132 116 0.43835090003358906 57 4098 37 3201 34 3588 19 2640 73 3052 41 3522 51 3708
32391 -2.5929425550996146 -1.7330210193625857 3.7718716584577705 180 170 160 0.86672762892326172 70 572 72 700 54 730 81 457 75 615
11638 1.4161585368704104 2.3138072159977767 3.8302112105312593 158 156 159 0.29848303824712868 27 848 48 918 47 465
34748 -2.592933502618711 -1.7330197769111757 3.7718747586115833 2 1 0 0.39823235933719142 58 2721 66 1776 13 1436
13995 4.3817799874524468 2.7339728511331298 0.53145784099247795 36 37 41 0.85076528719779854 1 2526 62 2175 85 2403 46 767
9313 -1.351510137741617 1.9283205466623043 2.05439653217246 149 134 111 0.64815706553901731 84 139 59 714 16 53
10227 2.307420394269331 2.4150571391139009 2.9748933217306455 196 194 195 0.49060043304692652 14 2074 27 1137 68 1243 48 1376 47 775 26 1091 21 1392 30 1458
32390 -2.5929437357444689 -1.7330210785354254 3.7718717028875988 161 120 115 1.4663164211608528 70 598 81 472 54 727 75 588
11637 1.4161585368704104 2.3138072159977767 3.8302112105312593 158 156 159 0.29848303824712868 27 847 48 917 47 464
34747 -2.5929339428452098 -1.7330194727405557 3.7718741507626219 6 5 1 0.30328140309328017 58 2719 66 1775 13 1435
13994 3.5544916944490352 2.7166637902122575 1.7119656370168723 208 204 203 0.16594571859894267 1 2511 62 2707 85 2401
9312 -3.9175012403285545 1.1073573542220829 3.476019504160353 207 195 148 0.8069686920375243 16 1276 59 693 51 2207 84 77 3 875
10028 3.7422656577097184 1.9965010502077387 3.9890070074512471 43 37 27 0.22560692429682208 14 588 27 687 68 712 48 2118 47 1299 26 668 93 1043
30574 -2.5929447666468071 -1.7330212753401049 3.7718715495483037 68 41 31 0.39978166542081883 80 1698 81 1510 72 2076 70 1751 54 1816 75 1388
9821 0.79509862004428855 -3.3092743574423382 6.0208900987821359 116 88 85 0.77710069067156862 14 3793 27 3950 49 4679 68 4033 48 3881 47 3195 5 1098
10226 3.3458267137055091 2.4321649646229937 3.0140174279137928 133 131 134 0.42727188837372809 27 1124 68 1239 48 1470 26 974 21 1209 30 1273 93 1437 25 1307
35288 3.6570533850818485 2.0264789900733273 -5.2041797395072544 128 152 154 0.004900632260978692 60 19 79 20
9853 2.5688969297665554 -3.5132444803259504 6.1461290829265804 52 44 31 0.57166165330760588 14 76 27 94 68 116 48 115 26 84 21 121 30 160
30606 -2.5929436683937794 -1.7330210947427382 3.7718716562210104 151 133 127 1.4662674112246192 80 1748 81 1580 72 2148 70 1816 54 1916 75 548
34179 -2.5929380875397241 -1.7330219963318692 3.771870474992185 90 70 71 0.87293688653454427 70 3932 72 4157 80 3531 81 3447 66 1738
13426 6.836340552586158 3.646444699273899 6.3535017917129109 179 173 150 0.23501276197927479 21 869 30 928 25 911 14 700
10225 2.7716576490551401 2.3978881634772726 2.9566203307730747 184 187 192 0.29030385299161349 14 991 27 1127 68 1238 48 1419 47 1610 26 1026 21 1293 30 1380
34178 -2.5929380875397241 -1.7330219963318692 3.771870474992185 90 70 71 0.87293688653454427 70 3931 72 4156 80 3530 81 3446 66 1737
8743 0.64793557657066303 3.3969415134080672 -0.92055284938278059 187 174 154 0.53640892732099932 41 3931 51 4110 84 2566 59 1640 33 1965 3 1884
29496 -2.5929390729788042 -1.7330234518142211 3.7718678031904798 65 52 34 1.5283534421313294 71 73 74 56 6 43 89 124 36 39
1569 1.3385810884286247 2.5977464736089253 0.557774764069769 72 14 3 0.30211207159724557 57 4092 37 3197 34 3583 19 3774 73 3045 41 3515 51 3702
32388 -2.5929432892783546 -1.7330210556295611 3.7718716771488183 172 138 126 1.0735963612195862 80 555 81 462 54 720
11635 1.3190359450244715 2.2635646118954584 3.8830759803715487 155 155 160 0.21880582816846697 14 789 27 809 48 863
10026 2.8103089624663808 1.9835011952880774 3.9655683853924448 32 23 7 0.25838104269985457 14 619 27 685 68 710 48 769 26 710 21 945
30572 -2.5929433560290951 -1.7330212241612473 3.7718714780339222 163 140 108 0.4462279792011638 80 1692 81 377 72 2070 70 1737 54 565
9819 1.8120000927655575 -3.4230834656454845 6.3774456339635783 130 104 107 0.82915742739086629 14 3790 27 3952 49 4677 68 4034 48 3879 47 3192 26 3737
10224 2.1873438997379004 2.447804384579078 3.0627697901054689 200 197 201 0.50345374339164128 27 2201 68 1232 48 2366 47 1575 26 2033 21 2331 30 2351
35286 3.6551702064902614 3.0185847720034147 -4.1509748748414594 179 143 95 0.39460440426996457 60 4254 79 2580
14533 3.8721030924115381 3.25245750547275 -0.36559378422353572 127 123 124 0.57301646170804299 2 3770 65 3717 31 3005
9851 2.2618925528116169 -3.4766407123250525 5.9820947820925978 144 110 111 0.75297775243072163 14 73 27 92 68 112 48 110 26 82
1568 1.7257330835823792 2.6043255712612909 0.47973506762234186 171 145 115 0.69816882660975399 57 4094 37 3196 34 3587 19 3781 73 3056 41 3535 51 3732
32387 -2.5929438386517392 -1.7330210435434636 3.771871676275742 121 102 97 1.0918540468489053 70 1830 54 716 72 2165 75 567
11634 -0.77828995611607743 2.550038646535695 4.0753773392090213 165 163 168 1.2218969914983897 27 2103 68 979 48 842 47 1298
34744 -2.5929338740379007 -1.7330241010570853 3.7718759081285484 9 9 4 0.90396224299822547 58 2700 66 1759 13 1420
13991 4.1593978049633744 2.6649390366071954 1.9079023354031686 120 116 117 0.33731396824106563 1 2489 62 2694 85 2367 46 376
9309 -2.0482725238222388 3.0075142791938951 -1.1358331545454154 132 117 99 0.43695253224549813 84 1614 59 172 3 926 78 866
10025 1.892656267071724 2.0908997380840755 4.2271290322233774 116 116 118 0.18844237808747075 14 644 68 707 48 702
30571 -2.5929444673539392 -1.7330212656628439 3.7718715138816963 133 78 60 0.34182280467787518 80 1691 81 1505 72 2069 70 1742 54 1806
9818 2.4003053881456884 -3.4908031218979327 6.5071671500000114 62 21 32 0.89778139726565909 14 3792 27 3954 49 4676 68 4000 48 3875 47 3190 26 3733 21 4024 46 1228 5 1130
35285 3.6626027964774792 2.3023651068933391 -4.2893431718616348 43 36 24 1.2515647981664717 23 3881 60 4078 79 2451
14532 3.8050729690762046 3.1082871664692804 -0.16862773933773953 122 117 114 0.68499462011969359 18 2944 31 2888 2 3674
34176 -2.5929387563542039 -1.7330221130788122 3.7718702617751148 86 61 53 0.33330141190259016 70 3925 72 4147 80 3521 81 3439 66 1733
13423 7.2043847383247117 -0.19903853820888534 9.1315870580677547 107 105 89 2.5705625574624422 68 2686 93 1939 25 1662 14 2438 68 2687 21 1901 1 1753
8741 0.65981773286220091 3.377746725789379 -0.94600327443836851 190 170 143 0.58646727774681229 41 3930 51 4107 84 2560
29494 -2.5929390840061441 -1.7330234962699442 3.7718677634145874 57 45 28 0.49755177660369981 32 76 74 41 89 104 6 35
1567 1.3036745639745246 2.5949193260538745 0.55414510409589546 204 152 113 0.27613152271100044 57 4088 37 3195 34 3581 19 3772 73 3043 41 3514 51 4395 41 4144
32386 -2.5929441006317426 -1.7330211141675924 3.771871674616543 164 132 124 1.1885786077138565 80 544 81 449 54 696
11633 3.7342040127378993 1.9957548225737167 4.0845464977641939 92 80 64 0.44303054130316005 14 578 48 796 47 392 30 935 25 975
34743 -2.5929337721135317 -1.7330227592938658 3.7718740634759609 23 25 20 0.73436938871172341 58 2693 66 1755 13 1417
9308 -1.8922777674624902 2.9571067108134361 -0.94980459774618176 46 44 38 0.6399092762423253 84 361 59 170 33 230 3 186 78 879
2108 1.9067927894425019 3.0132123334676968 0.55687799043567476 31 26 22 0.61567049247986283 57 5208 37 4188 34 4640 31 3601 73 3874
32927 -2.592941237482167 -1.7330201482873568 3.7718740161877005 147 150 159 1.6762577957532048 72 3724 54 3317
12174 4.8717533824583175 2.6080405914534315 2.4107065359651902 72 72 72 0.4579323442008762 14 1206 26 1059 27 2408 21 1249 30 1255 93 2258 25 1902
35284 3.6626027964774792 2.3023651068933391 -4.2893431718616348 43 36 24 1.2515647981664717 23 3880 60 4077 79 2450
14531 7.6495230401434648 4.6901453857602036 1.3056796220046323 80 77 68 0.44935646440678989 1 2164 2 3664 85 2002 42 2676 61 2870 67 2452 88 1803 69 863
30395 -2.5929440112956863 -1.7330207375149806 3.7718722238760032 29 28 33 1.7501000427502345 80 1934 81 1790 72 1022 70 876 75 1719 54 2821
9642 -0.46540899383276729 3.3172336295767901 -0.62328858806866716 35 19 6 0.72892788157597777 59 2247 3 2057 33 2626
9849 -0.11136227629417771 -3.3688503735199693 5.563600854280037 50 19 14 0.75097155457228004 14 1547 27 1659 68 103 48 112 47 997
1566 1.5316572183454871 2.5961905828802361 0.60847136299880633 74 16 7 0.58250118067227252 57 2721 37 3194 34 2460 19 2631 73 2119 41 3524 51 3712
32385 -2.5929445801387692 -1.733021175239541 3.7718716861483577 125 97 75 0.39722806603719119 70 568 81 444 54 682
11632 2.771063952177375 2.1132083861010971 4.1395382177673641 49 41 31 0.27453665025636848 14 637 27 705 48 787 47 1282 26 736 21 970
34742 -2.5929331118719734 -1.7330252065133949 3.7718747841263944 93 90 75 1.0487971000642999 58 2687 66 1846 13 1400
9307 -1.9017235221752129 2.9727288853506724 -1.1356905347136064 136 123 106 1.7698165544039539 84 370 59 168 3 185 15 894 20 323
10023 3.6975884206485259 2.0192367677920853 4.0629826105016376 61 53 34 0.26080020148173738 14 586 27 682 68 704 47 408 26 669 21 846 30 945 93 1046
30569 -2.5929445326109004 -1.7330212985681155 3.7718715201194875 113 63 54 0.51672118632164277 80 1688 81 1501 72 2066 70 1739 54 551 75 1377
10221 2.7276939307366255 2.4264001577079721 3.0466036796303992 141 139 140 0.42269153349532046 14 980 27 1119 68 1226 48 1391 47 793 21 1287
2107 2.7468327725664285 3.0277548980174025 0.52320023512707292 213 206 199 0.27243770981494975 57 5897 37 4186 31 3587 18 5087
32926 -2.592944334806154 -1.733020364086417 3.7718735151046601 141 133 131 0.57449325749690028 72 3732 81 3005 54 3302
12173 4.8717533824583175 2.6080405914534315 2.4107065359651902 72 72 72 0.4579323442008762 14 1205 26 1058 27 2407 21 1248 30 1254 93 2257 25 1901
35283 3.6072778812501451 2.9338847589978316 -4.2440387373609125 35 28 12 0.37793049896047587 23 3837 60 4040 79 2488
14530 4.1341888520509533 2.982999097147558 0.19160079049523607 197 177 152 0.73049597194718618 18 2823 2 3584 65 3554 1 2180
30394 -2.5929443041794862 -1.7330207566015017 3.771872184891643 50 61 57 0.33264792836749157 80 832 81 694 72 1019 70 872 54 1037
9848 -0.47628485654268687 -3.5697695727575809 6.1386313889188937 113 104 95 0.86876010687529437 27 1656 68 96 48 99
30601 -2.5929445963817086 -1.7330211962225732 3.7718716679732402 153 126 106 0.94215699046681345 80 1740 81 1563 72 2136 70 552 75 1464
34174 -2.5929384879621051 -1.7330220494591995 3.7718699886783522 187 165 154 0.46696974933800756 70 3923 72 4143 80 3518 81 3435 66 1730
13421 4.6332858429486565 2.4949248942460369 3.1480538479895266 150 150 147 0.71400989204249998 14 2987 68 3323 26 2916 21 3215 93 3135 25 2321 21 2769 26 1923 93 2743 30 2758 14 2009
8739 0.47039090259351418 3.4284106932220793 -1.038649940905287 232 212 175 0.33492908727152787 16 2468 84 2553 59 1335
29492 -2.5929331123042334 -1.7330244728643174 3.7718830130858501 0 0 0 1.9323327916510125 24 1717 10 1842 17 1613 50 1504 38 1798
10022 1.7900491333421227 2.1535941462353598 4.4074331620178038 121 121 124 0.16698900348002507 14 643 68 701 26 777
30568 -2.5929437665857114 -1.7330212319542926 3.771871457671363 123 88 69 1.1243780438585949 80 1686 72 2065 54 552 75 1385 70 2728
9815 -0.35699527764663108 -3.5729432172434912 5.8241000242279934 124 119 113 1.8535376277672688 27 3794 49 4595 14 3714 68 3966 68 3998 14 3751 48 3751 47 3067 92 710
10220 0.051639510945996239 2.6193321669971743 3.4125237823797172 87 83 82 0.7749193672333774 14 2167 27 1126 68 1222 48 1141 47 587
35282 3.5937057972203448 2.8908524528427977 -4.2164072786936257 103 64 26 0.20044452900805754 23 3727 60 4036 79 2407
14529 3.664760958117558 2.9081392552310219 0.63417099351775219 155 152 145 0.17802041243278133 1 2157 2 3576 62 2819
34173 -2.5929384879621051 -1.7330220494591995 3.7718699886783522 187 165 154 0.46696974933800756 70 3922 72 4142 80 3517 81 3434 66 1729
13420 6.989310800581749 -1.1479190274531312 8.3619430753166473 242 240 231 1.4820881962118577 31 5368 21 3773 18 6776 37 6069 25 3104 68 3653 26 3315 21 3607 30 3514 93 3286 62 3291 1 3008 85 3205 2 4869 65 4934
8738 0.43812266371506464 3.4218355084604308 -1.0352622916527354 197 176 149 0.42646119977420405 16 2466 84 2546 59 1332 33 1678
29491 11.413123096318287 -4.2670989621379478 5.3565544201993776 0 0 0 1.5661937596392761 22 1982 25 2031 30 2423 21 2478 93 1687
10021 2.2216933543912414 2.0762548996485828 4.2301698711825466 127 123 123 0.2163064230127717 14 632 68 700 48 710
30567 -2.5929438567485477 -1.7330212581453122 3.7718714595156682 132 97 77 0.24877234873937085 80 1684 72 2063 54 1801
9814 3.3860916898982723 2.257254815357852 3.4074494789613738 39 31 22 0.72985973861562115 27 3935 14 3779 47 3218 68 4020 26 3725 30 3938 62 3911 1 3550 49 4484
10219 2.0402801404869879 2.3929769635094402 2.9996261178207337 199 195 196 0.70142988856339805 14 1031 27 1121 68 1220 48 1326 47 735 21 2342 30 2361
2105 3.0428191602323458 3.0289484970571516 0.45570494555793883 203 198 194 0.74460967567555214 57 5904 37 4182 34 5256 31 2817 18 2906
32924 -2.5929402290694874 -1.7330199008762153 3.7718739015436569 161 164 174 1.8359641430086076 70 3013 72 3269 81 2539 54 3299 66 1051 58 1916 13 825
12171 4.0012201116663535 2.4527537863283784 2.582254513264941 127 125 126 0.33046499032882692 27 1290 21 1244 93 1390 62 934
35281 3.58851497962499 2.8521815603735536 -4.21263549709444 179 129 78 0.12573367840922228 23 3716 60 4035 79 2401
30392 -2.5929442612903841 -1.7330207850336055 3.7718721946031426 24 33 34 0.75381604567214078 80 829 81 693 72 1016 70 863 54 1035 75 1702
9639 0.46852319604992182 3.516228400807174 -1.2731844263463994 193 175 146 0.69088698549779393 84 2944 3 2020
9846 0.98676809666994503 -3.719233558811291 6.3463513573213541 155 143 131 0.5768339500230506 27 1655 68 83 48 85
30599 -2.5929447110053068 -1.7330211998879848 3.7718716608603287 73 46 35 0.32773144124500636 80 1739 81 1561 72 2131 54 650 75 499
34172 -2.5929396685315367 -1.7330224651381647 3.7718702765866343 196 163 139 1.1305454088554654 70 3920 72 4139 66 1728
8737 0.42800078030701366 3.3979627957168059 -0.94483662479621777 232 212 176 0.6892295949917131 16 2457 84 2526 59 1619 33 2185 3 1862
29490 12.386952946340132 -3.3980436198422059 3.7991437620775694 0 0 0 2.0245309503548241 25 144 8 203 10 280 17 1871 50 1148 55 81 87 1182 24 2095 56 197 93 149 38 908 22 117
1563 1.7089127840242233 2.5922512011758405 0.48793794049141404 160 138 112 0.65731054630670971 57 4089 37 3185 34 3584 73 3053 51 4410
32382 -2.592944410647624 -1.7330211722127375 3.7718716707026063 113 70 56 1.3488608974197527 81 1570 54 675 70 1813 72 3007 75 2162
11629 2.1471501892164389 2.10381481113156 4.5217832716589434 145 146 150 0.21562153632343978 14 599 27 653 48 671 26 716 21 965
10020 -0.35471385510491943 2.373990958153728 4.9912213727399442 148 144 143 0.60441863695831655 27 1961 68 699 14 1897 48 592 47 1891
30566 -2.5929437611924491 -1.7330212640097877 3.7718714542278291 91 55 35 0.56684912302587853 80 1677 72 2062 70 2727 54 1800 75 1380
9813 2.733892863728709 1.7689288902714402 4.4078560456644773 7 7 4 1.9293248798103624 27 3967 14 3804 68 4047 48 3911 47 3238 26 3756 21 4040 30 3935
10218 2.201665829029646 2.4029597701852445 3.0247943647179274 138 136 139 0.52100885699383115 14 2063 27 2195 68 1219 48 2362 47 1560 26 2018 21 2314 30 2339
2104 3.1009505231808361 3.0254326503317821 0.48267857819679161 199 195 192 1.220832474342318 57 5228 37 4179 34 4670 31 2810 18 4199
32923 -2.5929402509616333 -1.733019909668237 3.7718739011627131 161 164 174 1.6214632415109347 70 3012 72 3268 81 2538 54 3298 58 1915
12170 4.0086805844207234 2.4667575854703268 2.6049039092873572 127 125 126 0.24502607174486327 27 1289 21 1243 93 1389
35280 3.650859184331936 2.8155423822107104 -4.1160645929688373 55 32 14 0.35345859608563995 23 3830 60 4029 79 2400
14527 9.5431554592994097 4.419041372564311 2.2830046638067163 42 39 34 1.0969135197241522 85 2354 2 3552 1 2493 65 3511 61 857
30391 -2.5929438292830413 -1.7330207538425175 3.7718722088777281 158 122 122 0.44430050219136835 80 827 81 692 72 1013 70 856 54 1040 75 897
9638 -0.048982790980029972 3.8063052654277971 -1.8830036368587382 33 32 27 1.533006789870164 33 2440 59 2313 3 2014 78 3047 20 1009 15 2405
34171 -2.5929342288495745 -1.7330219854930891 3.7718672728781453 67 47 39 0.66328157129748677 4 4119 53 4089 66 1724 58 2665
34738 -2.5929370064756032 -1.7330189901063953 3.7718732726149535 202 207 213 1.7277496169332225 58 2621 80 3461 13 1306 72 4084
9303 0.37977393572372597 3.161674425830777 -0.32077275525057813 141 97 56 0.73098248260762433 51 3087 16 1816 59 933 41 1748 84 1151
10019 1.9109036413956311 2.0820406484106306 4.2745151818655289 200 198 199 0.45463127970193357 27 679 68 697 21 1003
30565 -2.592944527854292 -1.7330213198148869 3.7718715052843321 116 83 74 0.80473513085745962 80 1681 72 2061 81 362 70 1734 54 2654 75 1369
9812 2.5905077330310329 1.886277655147619 5.3381010340466206 204 210 208 1.2303085986493296 14 3764 27 3919 49 4471 68 4044 48 3892 47 3209 26 3713 21 4002 30 3906 62 3852 46 1106
10217 2.200494793309256 2.388434523303173 2.997538972690271 138 136 139 0.35445617333033713 14 2062 27 2194 68 1218 48 2361 47 1559 26 2017 21 2313
2103 1.4254608084368765 2.9520686529315396 0.38418834731109364 36 17 19 0.51099737671961909 57 5193 37 4178 34 4623 19 4784 73 3837 41 4260 51 4513
32922 -2.5929398823158469 -1.7330197541076451 3.7718738302381958 142 145 154 1.452428491493112 70 3457 72 3700 81 2528 54 3293 66 1342
12169 3.0415232572929161 2.375707151694737 2.9886723043147061 169 165 166 0.51986502251960931 48 2401 68 2283 21 1231 30 2242 93 2314
35279 3.6060345549352286 2.8183678443313669 -4.1639611636280085 225 174 102 0.14136714218259061 23 3825 60 4027 79 2397
14526 4.7427897759663216 2.982191980859707 0.039235404922066876 173 171 176 1.3714925939409914 18 2795 2 3551 65 2723 42 2565 61 962 88 1199 1 1329 62 1501
9844 2.186709163738902 -4.3149816274880681 6.1866677502498915 208 201 182 0.59304776121003955 27 61 68 67 21 30
30597 -2.5929448895027272 -1.7330211830234126 3.7718716411836977 39 22 17 1.8181738377519279 80 514 81 429 72 2124 70 1806 54 1882 75 1452
10018 1.528911587289129 2.1177858917563754 4.3777475188358395 166 160 160 0.49431490162652786 14 642 27 678 68 696 48 2070 47 308 26 1852 47 1208 21 2137
30564 -2.5929444869754628 -1.7330213170613296 3.771871472116223 31 10 3 0.57151022930164286 80 2463 81 2276 72 2059 54 2648 28 725
9811 2.4676729397395563 1.7991097971752656 5.6864396294476691 45 9 16 0.92803694888036703 27 3879 49 4469 14 3728 26 3709 21 3957 62 3849 46 1159
10216 2.8823147584635938 2.4914130666878553 3.1811489360129701 172 168 169 0.74645620874417284 14 958 68 1216 93 1547
2102 2.3342366037458619 3.0115478131307514 0.68234409701174004 79 76 72 0.75447232059291536 57 5205 37 4176 34 4637 31 3586 18 5095 19 4826 73 4429
32921 -2.592940853177248 -1.7330200216153295 3.7718736746437189 187 188 193 1.4769571560427508 72 3695 54 3285 70 3454 81 2969 80 3074 75 2981
35278 3.6460841428705888 2.7935060394754978 -4.0930148816051437 206 159 97 0.26332026972166395 23 3708 60 4026 79 2396
9843 6.8059551084738263 -4.8422835495395953 7.0939795317864434 161 155 143 1.858376112504494 68 38 25 48 14 59 26 2250 30 39
1560 1.3244803469453186 2.5539019964531651 0.58756105679750015 90 30 27 0.3170998538278838 57 4073 37 3182 34 3566 19 3754 73 3026 41 3499 51 3680
32379 -2.5929447310525688 -1.7330211704208496 3.7718716660097407 132 105 92 0.36055261008735318 70 554 72 674 81 438 54 666
11626 -1.0166651044012092 2.3982654011295907 4.8453440120067111 165 164 162 0.63535787638378027 27 1974 68 736 48 603 47 257
34736 -2.5929337638596115 -1.7330199379487672 3.7718749517982375 75 72 65 0.19276670157813305 58 2434 66 1532 13 1301
13983 7.5369001361636263 2.055924719025044 1.7755995610855673 86 75 85 0.94227794723762892 1 2361 62 2565 85 2248 2 3991 65 3390 61 4041 65 3974 67 3471 88 2009 69 1578
9301 -3.960849751332931 0.73730015685058625 3.4068474262962383 185 185 169 0.85866063784044289 16 2932 41 4578 84 3041 59 1729 41 5055 51 5381 59 1984 33 2028 33 2288 3 1893
33627 -2.5929436728745463 -1.7330212665446361 3.771871628114281 127 101 82 0.62641749511750644 54 3625 75 3062 28 1737
12874 6.9654682056654131 3.0476903450426955 4.6138034763437004 159 140 108 0.11070800225914297 14 1921 26 733 93 961
8192 0.81420849276053164 3.3424196231921965 -0.82871918350819507 221 202 172 1.7404921263448423 51 4102 16 2470 59 1649 33 2230
28945 -2.5929404317356957 -1.7330214981096079 3.7718706974732181 151 135 110 0.35471048984642656 36 981 74 576 71 595
10017 1.4805702817664814 2.1042942127050588 4.3584502115407293 121 115 115 0.31674525888140348 14 641 27 677 68 693 48 2069 47 305 26 1853 21 2140
30563 -2.592943618116994 -1.7330212484316572 3.7718714229893098 206 177 145 1.5076392519071331 80 1672 81 1497 72 2058 70 2726 54 2652 75 2854 72 3531 80 1680
9810 4.7991280925445814 1.6355249638751128 9.0641287831180275 181 184 166 0.9741589471400387 14 3723 27 3869 49 4459 26 3668 30 3863 62 3843 46 1153
10215 1.5770184458595158 2.4202758453477178 3.0669326822922058 180 178 179 0.72315585783853886 14 2091 27 2197 68 1214 48 1261 47 1511 26 2074 21 2382
2101 1.5137702015301833 2.9482920545117723 0.40365799930909885 25 0 0 0.6078818549760181 57 4327 37 4174 34 3806 19 3964 73 3252 41 3722 51 3909
32920 -2.5929395699129114 -1.733019781782573 3.7718736792970287 185 188 197 0.94959142546697872 72 3235 54 3280 70 2967
12167 4.319696279964508 2.4366905790686277 2.4475479663424187 141 141 141 0.29251916656554672 14 2114 26 1987 21 1223 93 1343 25 1180
35277 3.6207399002338994 2.7938326608070532 -4.1278267045257815 188 131 88 0.22651472710665296 23 3706 60 4024 79 2394
14524 4.7848616007695073 2.9632875834988708 0.098203779622777515 128 127 132 0.87486739343811193 18 4120 2 3545 65 3515 42 3279 61 3580 69 1414
30388 -2.5929438025413014 -1.7330207567776854 3.7718722113978873 94 53 51 0.30074684147040559 80 826 81 691 72 1009 70 2033 54 1039
9635 0.090022836823420258 3.6152684066114631 -1.756171363238727 177 157 121 0.60752537216503222 59 1884 3 2008 78 2900 20 880 15 2290
9842 0.79815692396481808 -4.1840922592511305 4.3231360092859443 174 162 148 1.3832911106921326 14 1533 27 30 68 25 47 980
1559 2.0658292193650354 2.5598146481901631 0.76797272152221585 197 154 122 0.51250644644462284 57 4078 37 3181 34 3575 31 2629 19 3775 73 3050
32378 -2.5929437220016802 -1.7330211462907452 3.7718716388195559 139 108 103 1.2372103182017178 80 515 81 434 54 665
11625 3.5818828603998361 1.8736403468234524 4.6749392729012031 79 72 61 0.21045366101172358 14 507 48 598 30 863
34735 -2.5929337638596115 -1.7330199379487672 3.7718749517982375 75 72 65 0.19276670157813305 58 2433 66 1531 13 1300
13982 7.5345634784650786 2.0554635442834344 1.7718339421963472 86 75 85 0.94167058835161255 1 2360 62 2564 85 2247 2 3990 65 3389 61 4040 67 3470 88 2008 69 1577
9300 -2.9671267330780418 1.8504774701039144 2.8187032763545647 44 41 32 1.0353319324588948 16 3973 51 6284 84 3937 59 2541 33 2803
10016 2.7451455411177639 2.1663586786411941 4.5130257052048366 79 73 68 0.54944859796116985 14 603 27 672 68 691 48 728 47 1242 26 704 21 938 30 1038
30562 -2.5929435072030929 -1.7330213127436003 3.7718714187143654 188 159 126 0.38873539108510968 80 1670 72 2057 81 1495 70 1726 54 2647
9809 -0.085249841717144531 -2.9910230413519536 5.8160282189673715 125 99 100 0.79928876997875853 14 3717 27 3800 49 4452 68 3970 48 3758 47 3075 5 997 92 868
10214 1.1530302135457986 2.4672827304699791 3.1642995454017591 126 121 125 0.41183179708035739 14 2103 27 1114 68 1210 47 1481
2100 1.992290333181856 2.973983232256765 0.50384015573265106 15 10 15 0.72373646319897755 57 4341 37 4172 34 3825 31 3591
32919 -2.5929404642154092 -1.7330199146379166 3.7718735542596553 133 132 140 0.415538500811025 70 3443 72 3232 54 3278
12166 3.8014461037585683 2.4063850542001433 2.6908500667728825 184 182 185 0.28714264864245614 26 999 27 1225 21 1216 30 1265
35276 3.6242418292044016 2.7973960088313512 -4.1582173579051886 51 32 18 0.36598175009141043 23 3824 60 4023 79 2481
9841 -0.50897191962027422 -4.3102945167514797 4.4812860824960872 180 167 150 1.7753470384870187 27 1641 68 21 48 24
30594 -2.5929448296202691 -1.7330212019231006 3.7718716258092617 120 94 87 1.0278466734900535 80 1733 81 1550 72 2115 70 1801 54 620 75 478
1558 2.1081522141557745 2.5549395567730064 0.72995336535368793 185 134 91 0.59690280729401368 57 4074 37 3180 34 3571 31 2628 19 5329 73 4287
32377 -2.5929447465357627 -1.7330211524193546 3.7718716554225562 100 69 49 0.73410086243628003 70 555 72 675 81 439 54 662
11624 3.7426705300440846 1.8301998737897516 4.6849510478506193 247 240 223 0.35186146371759308 27 575 48 578 30 839 93 923 25 896
34734 -2.5929336931843947 -1.7330243960949501 3.7718761904307092 101 92 75 0.38946023752239328 58 2699 66 1758 13 1279
13981 7.0659847427009028 1.7944800044921709 0.68625987892069806 2 2 0 1.3666702814938825 62 3532 85 2244
9299 -3.2482880042376183 1.8178455627113956 3.1094331088305376 44 41 32 1.6545675309718364 16 3972 84 3936 59 2540 51 6283 33 2804 3 2363
2099 1.8323070571244149 2.9727014587794192 0.52072238822933281 119 110 93 0.56111813333704086 57 5195 37 4171 34 5225 19 5888 73 4813
32918 -2.5929404642154092 -1.7330199146379166 3.7718735542596553 133 132 140 0.415538500811025 70 3442 72 3231 54 3277
12165 4.8356300070307965 2.5986110849105146 2.6732287809855837 205 206 201 0.25949764192340929 26 990 27 1356 21 1178 14 1074 30 1217 93 1291 25 1127
35275 3.6577861569018775 2.8732982458214864 -4.0739745005782915 68 41 20 0.85240087164429179 23 3571 60 3901 79 2281
14522 4.8605067859899282 2.9489853192933366 0.12280528475727645 171 170 176 0.71044832982083328 18 4112 2 3535 61 4113 88 1787
30386 -2.5929437949685843 -1.7330207702910212 3.7718721959963748 169 130 125 0.30694780956788703 80 820 81 687 72 1002 54 1032
9633 0.19545412798423265 3.5339935136797025 -1.5356525514905481 199 182 152 0.83038667113511311 59 1877 3 2004 78 3162 20 1127
9840 -0.42616504018190376 -4.3036209540666208 4.2038396885935114 173 160 144 1.7720032117953552 27 21 68 19 48 19
34166 -2.5929406862029096 -1.7330199608360877 3.7718736317386257 0 0 0 0.77348024957017247 54 3672 70 3708 72 3940 81 3228
8731 0.42717508566353174 3.2875422557820557 -0.49590668745724387 185 163 139 0.16154166134322756 41 3112 51 2001 84 2473
29484 7.7875057311468181 -3.9557491357176269 4.5988884635761522 15 14 17 1.4548763533864344 46 536 21 3324 26 3263 30 3244 62 2879 1 2641 85 2528 88 2479 93 2858 25 2412
2098 3.1391093571351476 2.9996597359473682 0.42319131199571636 101 96 93 0.42095641303325393 57 5894 37 4170 31 2803
32917 -2.5929396106323703 -1.7330199300384586 3.771873528088979 163 166 173 0.92321385694231417 72 3215 81 2507 54 3271 58 1880 80 2667 13 815
12164 2.0019194637346551 2.2929383833109012 3.7049755971865164 105 104 102 0.25595900322641368 48 986 68 927 21 1160
10013 2.2376376138353939 2.1215264435893588 4.4717729066489138 139 142 143 0.22320455265056852 14 612 27 666 68 684 48 691 47 317 21 968
30559 -2.5929438239311136 -1.7330214081958979 3.7718712942043719 184 154 118 2.126190008463035 80 416 81 1480 72 2038 70 443 54 485 54 490 75 347
9806 0.69841328255327384 -4.2191651679221884 4.1538605142050811 103 96 86 1.4785481092593156 27 3948 49 4448 14 3819 68 4031 48 3872 47 3187
10211 2.2517162744651058 2.3855570227435337 3.0474900575865624 217 217 219 0.35432587394359166 27 2188 68 1202 21 2298
2097 2.997068982298337 3.0114484257061047 0.54739584879230696 131 126 120 0.63074036616186491 57 5213 37 4169 34 5245 31 2805 18 4198
32916 -2.5929390520478277 -1.7330198117410778 3.7718734864805747 165 166 170 1.3603361193996744 72 3209 81 2500 54 3264 80 2662 13 810
12163 2.562226974304405 2.3216135277303627 3.5495732155352768 136 134 135 0.51967546361891181 47 572 68 996 21 1143
35273 3.6465802548157589 2.9846410526927567 -4.4842966532533808 195 159 108 0.7522582676435422 23 3728 60 3894 79 2278
9838 1.0328109479506957 -4.1235555254279701 3.6584720876450341 100 89 80 1.3967068995027925 14 1524 27 16 68 17 48 15 47 975
30591 -2.5929442038489725 -1.7330212069187667 3.7718716123680855 187 158 138 0.72486505504637322 80 1727 81 1545 72 2109 70 1784 54 1871
2096 2.022626986991217 2.9745912284970712 0.53036446541914173 34 34 32 1.0781347261582095 57 5196 37 4167 31 4307
32915 -2.5929403016192469 -1.7330200985345952 3.7718733555708321 181 180 186 1.6233182592779849 81 2495 54 3255 72 3203 80 2658 75 2732 58 1882
12162 3.2174830973407507 2.2985094007154618 3.2264793952429822 204 204 206 0.17065958892959887 68 1089 21 1132 48 2331
35272 3.6858004611843289 2.9708607230720938 -4.4593563501179769 198 163 109 1.2112219174955778 23 3726 60 3890 79 2100
14519 7.2292442725302113 2.8398821216228098 2.3802337421058515 22 26 25 0.96629602711018214 1 719 2 3471 65 2614 42 2488 61 2675
33620 -2.5929465073310545 -1.7330228194569826 3.7718707851815148 154 117 111 1.9584232249952693 54 3707 75 3023 28 1601
2094 1.6521315927149094 2.9229687783693774 0.40966340062157058 106 88 68 0.76936580391915554 57 5179 37 4162 34 4606 19 4782 73 3834 41 4262 51 5086
32913 -2.5929386982647897 -1.7330200656653352 3.7718734108377943 148 151 158 1.769375660967925 54 3249 72 3190 81 2487
12160 3.5104405890113659 2.272713619857067 3.1877838687853215 4 4 0 0.083931346924513164 68 1083 21 1112 93 1297
35270 4.1946379132169129 2.4958909724213059 -4.0289050998229845 49 49 73 0.66176662610587067 23 3456 77 1936 60 3814
14517 7.2537327040032027 2.5948113785010967 2.1270387893182581 48 44 37 0.89827579303910488 25 906 2 3454 42 2451 88 697
9835 1.6234345769057015 -4.1472212797191057 2.166640921535997 153 137 114 1.5144406531248356 27 3 68 11 48 1770
30588 -2.5929437811502409 -1.7330211667251467 3.7718715733483026 187 150 140 1.1310536548825598 80 1720 81 2294 72 2104 70 3289 54 3109
34728 -2.5929329723821937 -1.7330198392555138 3.7718746519531141 55 50 44 0.1693229146304476 58 2427 66 1524 13 1134
13975 5.8797616080322301 -0.49344130533241526 9.0116517731836847 205 209 192 0.85992460730722264 27 2581 93 2589 85 2199 25 2166
9293 -1.4095652095065481 3.1002981849033286 -1.1185373176684457 227 198 142 0.94580536193381193 84 3946 59 2520 33 2785 3 2308 78 3345 20 1322
10009 2.8471496012442792 1.9444293048271286 4.0907957981170417 154 140 114 0.23578111562990733 27 656 68 677 48 705 47 332
30555 -2.5929437427619937 -1.7330214783836455 3.7718712176731799 231 203 166 1.1389651847592541 80 1652 81 1466 72 2026 54 1736
9802 2.5800278495137414 1.356787379832783 7.8227006552155824 32 9 14 1.036733937673499 14 3539 27 3700 49 4263 68 3819 48 3764 47 3087 26 3515 21 3794 30 3714 46 1094 5 933
10207 6.2566687058266055 3.9681261601996152 5.8964259945909951 115 108 92 0.67527897460747521 27 1080 68 1194 26 853 30 1101 93 1147 25 1012
2093 3.1364640877436405 2.9871479056225718 0.56954604288385358 197 194 187 0.74078192643577845 57 5204 37 4161 34 4644 31 2795 18 4185 2 4155
32912 -2.5929423601922337 -1.73302028773565 3.7718730995943095 169 164 168 0.41111078419967334 70 3422 72 3197 81 2936 54 3247
12159 3.5893873042223796 2.2170480370914492 3.2596875723169489 56 52 43 0.12203210324041723 68 1022 21 1075 25 1133
1551 1.8067369042001749 2.5098484059171935 0.85862025638056494 124 61 42 0.66967358829990131 57 4059 37 3167 34 3556 31 2620 19 4647 73 3705 41 4682
32370 -2.5929438733752668 -1.7330211891227634 3.7718716092468862 105 75 65 0.95366796165627865 72 635 81 1548 54 626 70 1787
11617 3.8397708695480657 1.7685718427609445 5.3352199471824244 116 116 106 0.42613482465116131 27 518 48 429 47 1127
34727 -2.5929329723821937 -1.7330198392555138 3.7718746519531141 55 50 44 0.1693229146304476 58 2426 66 1523 13 1133
13974 4.2835206396426635 3.0134814542742689 0.13519104934251702 81 52 37 0.45348760935964777 62 1627 85 2043 1 1462
9292 -3.2525713340726812 2.480413851919669 1.4962544664161059 118 107 101 1.0174451019360942 16 3977 84 3941 59 2513 33 2782 3 2341
33618 -2.5929465011259758 -1.7330226970649583 3.7718706557730033 136 80 83 2.0134237107714199 54 3022 75 3020
12865 6.9132820127704564 3.5896128185270286 6.7642407292684572 176 170 148 0.35455263783730251 14 635 21 812 27 2024 30 1994 93 937 25 875 62 886 1 1891
35268 3.5926423493669968 2.8748584789848959 -4.2381092526135644 183 131 81 0.14295930137154655 23 3305 60 3654 79 2095
14515 6.0902559769111591 1.8117020847962666 7.8461303390599122 58 86 87 0.4568773527261652 1 2347 2 3430 65 3421
30379 -2.592943937379836 -1.7330208202923927 3.7718721276295653 103 68 64 0.64176580788202298 80 795 81 669 72 967 70 827 54 1012 75 865
9626 -0.1379935959811035 3.5058249649929958 -1.7913119785348344 223 198 157 0.43225862550218491 33 2151 59 1836 3 1981 78 3015 15 2260
2091 3.1892038131345526 2.9759074231278824 0.59530566031727494 106 101 98 0.82354087071585713 57 5880 37 4157 34 5237 31 2790 18 5058 34 5638
32910 -2.5929424898754738 -1.7330203329022091 3.7718728603533744 169 165 166 1.3394297945175175 81 2477 54 3234 72 2444 80 2636
35267 3.597458451187602 2.8020939867943784 -4.2077709854077954 199 137 81 0.69836465715419938 23 3285 60 3622 79 2066
14514 6.1988208203419397 1.5073903660055379 8.1253241451368101 220 222 203 1.0777024729426952 1 1770 62 1901 2 3425 65 3411
30378 -2.5929409154937342 -1.7330207285341839 3.7718722658777382 23 13 4 1.3173023859189492 80 786 81 1767 72 962 70 2846 54 3220 28 1675
9625 -0.2793009618460699 3.4669167910261858 -1.7174786340236103 239 223 180 0.28311845674552588 33 2368 59 2080 3 1966
9832 1.7602660754964565 -4.0052043523381267 1.8949427908455267 22 12 1 1.6807323541140526 14 1512 68 4 48 3
30585 -2.5929440972275879 -1.7330212016889126 3.7718715899782511 184 146 137 1.6725759269702458 80 1717 81 1534 72 2099 70 1778 54 1858 75 1441 28 757
1549 1.6928674949302436 2.5123138458659318 0.57554354137276442 139 106 115 0.15480527692869109 57 4051 37 3164 34 3551
32368 -2.5929434900205033 -1.7330211557091626 3.7718715322711054 179 158 139 1.8019149363451998 70 501 54 603 28 274
11615 0.29362408132075107 0.89552672808553591 3.816809742169021 48 39 34 2.7979931684716197 41 2115 48 339
33616 -2.5929444784481501 -1.733020370197875 3.7718736085700053 0 0 0 1.5576131190885614 54 3534 72 3747 80 3339 81 3250
10006 -0.18340920856623635 2.3479303707456252 5.2060053440961722 150 146 147 0.40228306552131832 14 654 68 665 48 543 47 231
30552 -2.5929437969488376 -1.7330215570905783 3.7718711190680794 193 173 147 1.4589165386563359 80 1644 72 2010 54 1704
9799 2.5186391908735284 -2.8568044328296511 6.6293198564974825 35 9 13 0.73831947257245922 14 3510 27 3674 49 4247 68 3793 48 3639 47 3078 26 3467 21 3745 30 3798 46 966 5 999
30750 -2.5929434968674707 -1.7330203372227406 3.7718734344528682 131 121 121 1.6900476044624673 80 1148 81 2533 72 2558 70 2281 54 2295 75 1896 28 1406
9997 1.7767876492668047 2.0152465852800545 4.5599240860848127 190 189 190 0.26175964512117639 14 581 27 629 68 637 47 259 21 957
2090 1.4271935807803982 2.8974650262715729 0.35538065377115158 60 50 41 0.30768922230692425 57 5169 37 4156 34 4590 19 4759 73 3813 51 5058
32909 -2.5929389317228364 -1.7330197249883335 3.7718728338441432 110 45 27 0.96323535540592942 70 3408 54 3232
35266 3.5847717862430892 2.8289218558549143 -4.2341486168781213 187 140 87 0.23366088900957779 23 2969 60 3348 79 1855
14513 6.5220737192499154 1.4016570030929019 8.5597164019682115 30 31 26 1.064575296659674 18 3999 2 3420 65 3407
1548 1.9480727274065031 2.4979179078743052 0.8884088724650272 176 143 112 0.73840797170580175 57 4054 37 3163 34 3552 31 2616 19 3744 73 3022 41 4142
32367 -2.5929428918018678 -1.7330211205837549 3.7718714983640451 200 174 145 0.68006191960630236 70 496 54 602 72 603
11614 2.4340469998741305 1.1575928676625371 7.5594116237721565 163 81 103 0.62191436384917731 18 254 48 312 21 626
10005 2.7600110043762385 2.0044814324442335 4.3745908137366207 89 77 61 0.25417114763756687 14 570 68 662 48 683 21 885 30 1000
30551 -2.5929438638804201 -1.7330216035866439 3.7718711125716169 219 197 172 1.6965571313655139 80 1642 81 2752 72 2004 80 3222 70 3818 54 1700 54 3407 75 2823
9798 -1.1352981675770952 -3.2908698622976664 5.5971767108186787 73 66 60 0.93243738371250162 27 3666 49 4242 68 3783 48 3624 47 2949
10203 1.6793617237692609 2.4150959418807849 3.1494516597304507 130 126 127 0.47649532154775986 14 1013 27 1090 68 1182 48 1241 47 670 26 1113 21 1431
2089 2.6404414130886735 2.9680377844687333 0.73495919056769843 188 183 179 1.0984132316302311 57 5184 37 4155 34 4624 31 3561 18 5066 19 4817 73 3881
32908 -2.5929413324922765 -1.7330205591604926 3.7718723446635409 157 146 128 0.84191535810505236 70 2859 54 3222 75 2690
12155 3.4766020035267107 2.1630479458768472 3.574250500332699 81 73 60 0.33040699655204725 48 1055 68 900 21 1000 30 1102 93 1214
